# 3D point list with one line of data per point:
#   POINT3D_ID, X, Y, Z, R, G, B, ERROR, TRACK[] as (IMAGE_ID, POINT2D_IDX)
# Number of points: 297, mean track length: 11.215795328142381
3607 -1.8266257884376471 1.5543209472838386 2.0155637883758875 188 164 138 0.4527802971383813 87 62 92 10
3605 -1.4865413166323633 0.57591325906184765 2.3177242439098804 152 129 104 1.6954915138551907 89 149 90 293
3604 -0.55903351701233761 0.46137237473032711 3.1460542360908619 118 65 56 1.3779386771155164 57 165 64 111 74 105 75 112 81 123 79 122 82 121 85 134 89 105 90 271 85 228 86 236 44 130 45 242 43 358 46 179 47 177 48 135 40 395 49 318 52 83 56 177 60 207 59 263 62 182 57 243 63 176 94 116 91 115 46 163 97 127 98 137 100 111 101 94 105 108 106 128 109 131 111 125
2007 -1.2370231552085704 0.36718054218700247 3.1087958115896877 96 77 62 0.091522591627717295 32 234 28 335
3598 -0.86534775386171137 0.24989529116714998 3.0362717033220359 77 65 52 1.6468181267779523 80 44 81 46 79 54 85 52 84 46 82 48 88 40 89 38 86 53 90 49 65 29 66 28 68 27 67 25 64 26 70 27 72 21 71 23 73 20 77 14 74 17 75 18 83 19 76 16 78 15 80 15 80 262 81 15 79 20 69 24 87 44 92 50 91 43 95 53 96 54
2001 -1.2100290388882606 0.87874099284746776 3.0624660178598959 112 84 73 1.9640348153907923 31 306 39 302 28 301 25 271 26 207
2801 -1.2177394162531567 1.1303115326524835 3.8759807632158556 106 50 44 1.6140783053695265 18 204 19 348 20 209 21 307 13 195 14 183 16 212 9 190 32 206 33 245 31 403 28 281 30 274 27 222 25 187 26 193 24 143 22 136 19 132 21 132 20 126 15 116 18 129 17 115 13 109 14 115 10 112 9 108 11 106 11 212 12 208 6 214 8 170 7 185 5 178 3 183 4 167 1 165 2 173
4398 -0.62241132629723728 0.61314054019665198 3.0010083633868327 121 88 69 1.8290646434315985 109 194 111 273 110 207
1195 -1.2641627774722954 -2.561651336470979 7.0681277130842357 143 125 103 0.31185721038163416 41 187 60 208 56 121
3591 -0.65899283000336917 0.34754971618895136 3.4177802760058995 96 16 15 2.0584799304563091 88 169 90 265 105 105 109 270
1994 -0.41672452404468696 1.4180878468084908 4.1842715729268507 0 0 0 2.714235974598036 29 277 36 346 31 281
3578 -1.2351135747291577 0.64462597416572542 3.1281873550323382 160 144 120 0.89184311860363852 89 92 90 188
2781 -0.96413187400052325 0.013214428446128839 3.1001579650909807 220 189 160 2.1259906060078659 9 124 11 124 8 95 5 100 3 133 1 134
3181 0.17809503915153307 1.1441683906213036 3.8259448862099261 164 133 112 1.7990238312678117 71 19 72 14 75 21 85 41 84 43 82 40 86 42
1584 -0.52233996499485713 0.62368584691953322 3.4811967946718365 139 96 80 0.76872079681287342 69 216 66 280 68 198 67 185 64 208 70 197 71 194 72 128 73 133 74 120 77 113 75 98 83 105 76 98 78 102 80 66 81 79 79 86 84 79 85 92 82 77 88 82 89 83 86 214 85 212 87 78 90 81 90 169 92 81 91 78 95 95 95 180 96 153 93 78 93 194 97 63 98 66 98 161 103 61 102 75 107 68 100 73 99 55 101 76 105 61 108 62 109 58 111 114
3978 -0.73126350681275598 0.56130177320714902 2.7645097973115931 172 151 125 1.4645659185656144 102 63 100 44 99 34 101 35 105 49 106 31 108 43 111 84
2381 -1.1388590777146677 0.39735542170237204 3.0040298643811703 10 1 0 1.5461797485699582 23 190 24 173 19 151 20 254 24 330 15 172 18 263 18 265 13 236 16 236 16 239 10 110 12 253 8 99
784 -1.0811358692883579 0.8785726663348854 3.0591892849475353 126 83 74 1.3736920397600816 41 324 48 333 40 95 46 81 54 93 51 78 49 107 53 83 52 77 52 247 58 111 56 129 60 114 62 178 57 111 57 155 63 247 65 349
3567 -1.0675254311594753 0.62017992034624747 2.8392133637950376 155 140 117 0.50269872727348341 89 146 90 93 97 92 93 58
3562 0.37518428319303987 -0.86206322512853184 2.1490356833551143 148 130 106 0.033455368669646726 81 5 90 20
1965 1.4890060141516821 -2.5426653498132259 6.0700194186106939 144 120 96 1.414568221052132 27 233 25 181 21 214 22 178
4359 -0.80785511483282579 0.29318890453757185 3.4705981682087073 97 19 17 1.5246600608486645 108 236 109 275 111 221
2765 -0.94982052569293296 0.12680006994622359 2.950246511100636 54 33 14 1.9872319661232964 16 169 10 262 9 125 13 174 14 173 11 125 12 126 12 240 6 202 8 185 1 233
3165 -0.52676504638770505 0.57176747020227436 3.3000640212416976 138 81 70 0.20237846861495881 73 272 77 246 75 224 83 228 76 208 78 213 80 213 81 244 79 234 88 240 89 269 90 260 107 164 100 245
3558 -0.79402064044610676 1.3045175066675232 3.2114540343512332 211 180 151 1.6378317749098288 89 4 90 4 91 3 92 4 94 2 95 3 96 2 93 3 97 1
4355 -3.4928194080019197 5.1913822214634484 1.4966145426285162 143 119 94 0.30076524321499637 104 201 111 182
3161 -0.41794558371387297 1.0247796800201507 3.7842062370540055 110 86 74 1.5916468373558885 73 231 77 207 75 184 78 171 81 211 84 195 88 195 87 185 107 244 102 213
1564 -3.5678987568501896 -2.8201601326430161 8.4804096198064336 165 144 122 1.6254247367350732 58 89 60 101 63 87 51 90 59 87 57 48 55 119 69 48 61 130 65 126
3548 -0.9524597040937357 0.4977830297687903 2.7845538027317245 140 122 110 1.8777506021668053 89 54 87 263 94 63 90 197 92 66 91 51
2751 -1.0611467932779466 0.8009232847971961 2.925255333142101 111 71 63 0.86846270864110076 13 126 10 129 9 148 11 155 12 151 8 200 7 204
4348 -3.9838599226920546 7.2190273669905132 0.35961027063083856 164 140 114 0.97424316245562204 104 156 108 79 111 95 109 68
3151 -0.34752147403753025 1.0192585865851462 4.0500113186491502 174 139 117 1.498451933327172 72 39 74 61 77 53 67 49 75 58 83 44 78 53 79 76 85 78
3547 -0.89858237417094688 0.16618380941525873 2.9590887020298147 85 69 56 0.7696578918784297 78 252 87 262
3150 -0.9123547308649812 0.10171101293274094 3.1233293914956031 78 64 53 0.38284983526593885 74 57 77 49 75 52 83 54 76 43 78 45
1553 -0.55269887532837325 0.55068468512519664 3.1370752111455484 108 37 32 0.44400546305876515 69 162 52 290 55 237 58 260 56 176 60 260 59 248 62 291 61 169 63 171 65 164 66 139 68 148 67 157 64 160 70 143 71 139 72 139 73 144 74 132 77 124 75 109 83 115 76 109 80 104 78 115 81 120 79 119 84 124 85 132 82 118 88 125 89 136 86 119 87 116 90 129 92 116 94 158 91 113 95 138 96 181 93 151 97 185 98 195 103 126 102 131 107 134 99 159 100 168 101 110 105 163 104 118 108 117 109 191 111 170 110 210
3528 -0.71117541925679695 1.5430272733802917 3.9215395508827826 150 124 102 0.41426198163986672 79 209 85 203 86 187
2731 -0.56091331626548524 0.41138890873223888 3.2363260845688404 136 73 68 1.6324249324893338 68 309 72 273 74 190 81 252 80 222 79 276 85 266 82 208 82 209 88 216 89 275 82 207 87 230 87 265 90 268 92 219 94 225 94 226 91 216 91 217 95 255 96 280 93 209 93 210 97 149 97 267 98 279 103 284 103 285 102 278 102 280 107 301 107 303 100 249 100 251 99 255 99 256 101 244 105 274 105 275 106 187 106 254 104 264 108 284 108 285 109 189 109 278 111 166 111 256 110 259
3515 -0.92582330557521131 0.66658361167251967 2.7575354653606845 180 154 127 1.5659906202894771 92 38 94 33 94 61 91 44 95 62 96 277 90 120 93 57 93 238
3513 -1.3696720928494139 0.20937597224067719 3.3140394077942026 189 164 139 2.1359427286267874 88 21 89 24 95 102 91 121
2716 -0.56511753158613642 0.42011778332545291 3.1078408021987172 125 83 69 1.0059874595735778 64 36 67 36 68 30 71 35 72 27 73 302 75 126 77 268 84 258 88 260 89 285 90 275
4313 -2.3281133725508321 4.0391343751666078 4.3244912194470722 123 87 73 1.3335406617651893 104 249 109 253
3116 -0.41089168025555994 1.060012445838767 4.0501594815491853 217 186 158 0.68586299647261351 64 48 69 47 74 40 68 35
3508 -0.96771513259752351 0.54000146112332148 2.8200831612027621 184 170 156 1.2750066384215162 88 285 89 305 90 298 86 258 79 271 87 171 81 247
2711 -0.55941521813984751 1.2062864874186099 3.6015731191390667 63 46 35 1.8998672291404495 65 139 69 137 68 132 67 136 64 135 71 175 48 303 40 336 54 373 51 230 53 217 55 197 58 221 56 197 60 225 59 210 52 313 62 225 57 192 61 213 63 205 65 202 69 197 68 180 66 172 67 192 64 190 70 176 72 236 72 254 73 169 73 170 74 157 77 141 77 143 75 129 75 131 83 147 76 129 78 138 78 186 80 124 80 161 81 200 81 203 79 188 79 191 84 184 84 187 85 185 85 190 82 180 89 220 86 193 86 203 87 198 49 274 57 132 61 143 51 232 58 148 60 155 40 243
4308 -1.9463301589587245 2.2102873760693811 4.8891679242007369 211 179 156 0.45424136106426777 108 175 109 216
3111 -0.5143539248468928 0.71141103726243704 3.5998261645813154 121 97 83 0.86402597612167453 72 35 73 42 67 81 68 75 74 28 77 22 75 26 83 30 76 25 78 23 80 24 81 19 79 24 84 17 85 20 82 20 88 16 89 17 86 17 87 15 90 16 92 20 94 13 91 19 95 24 96 18 93 20 97 11 98 17 103 21 102 21 107 19 101 15 105 19 106 28 104 20 108 17 109 19 111 23 110 25
3506 -0.89681804029828194 0.14816526430032098 3.1134180345290949 111 96 77 0.92663802389483274 88 283 89 302 87 251 84 282 90 291
4303 -0.7168108861232273 0.61247409074559811 3.9444402683623512 104 24 23 2.5049525888015207 108 190 109 175
2709 -0.77876541382286524 0.18257658243146158 3.0658629337425105 106 94 80 1.4800981909529638 67 346 68 268 69 221 71 313 73 58 74 54 77 46 75 70 83 53 76 42 78 61 81 92 79 95 84 93 85 106 82 90 88 135 89 191 90 187 86 95 92 160 94 165 96 184
3109 -0.57017079660411485 0.48167868895002758 3.05254176899038 118 68 60 1.1796773030350867 64 342 71 293 66 305 68 311 57 331 67 326 64 339 70 300 71 292 72 281 73 301 74 285 77 265 75 241 80 181 76 223
1512 -0.79135828310719647 0.22809501445788841 3.0392478615064769 68 58 46 1.3244537237572831 62 266 63 416
3498 -0.65444919000171042 0.57782946356804321 3.7823148356293501 130 78 70 0.63469936068159738 88 232 89 253 92 200 94 211 91 200 95 235 97 170 103 173 102 180 107 124 99 144 104 125 109 117 111 110 110 100
3493 -0.8194912398034595 0.17878854981828188 3.1104818259513878 188 176 152 0.83457312838214726 88 111 89 192 90 287 94 164 95 191 96 132 98 300
2696 -0.78948145895031407 1.4406805751655334 3.718961355940825 83 23 21 1.7040467107441775 70 90 71 97 72 233
4293 -0.79838652371471763 0.42844787581525495 2.8838709902444233 91 78 61 0.17906751950504807 108 74 109 63
1090 -0.82898518486556239 0.34553114287657727 2.5111311495583784 107 90 78 1.8615397858604539 53 69 52 61 58 126
3096 -0.54209741554793012 0.55754786586514216 3.1890982369485177 110 26 24 0.5594773716329422 64 216 65 232 66 138 67 156 68 147 69 161 70 142 72 137 73 140 63 175 74 129 77 122 75 107 83 113 76 108 80 102 81 118 79 118 84 122 85 130 82 116 88 122 89 134 86 118 87 114 90 126 92 112 91 110 95 137 62 253 56 229 59 247 61 246 55 234 57 224 58 258 60 257 59 368 96 177 93 150 97 108 98 193 103 124 102 129 107 132 99 158 101 108 105 162 106 188 104 133 108 148 109 188 110 185 111 165
1499 -4.8490602389497797 -3.3380943924736211 9.2223317463573231 147 125 102 0.74653226734565792 58 268 65 375
3491 -0.65712759862685399 0.64275236405815794 3.8736866543879942 97 44 38 1.5733599930244819 88 222 89 177 90 161 92 109 94 110 91 140 95 128 96 116 93 105 97 116 98 174 103 77 103 166 97 242 102 88 107 79 100 93 99 97 99 221 101 66 101 224 102 238 105 126 105 217 106 81 106 231 104 85 104 136 108 84 108 164 109 75 111 68 110 77
1894 0.40870397639845335 1.1830557551600216 3.6658128055433168 171 143 121 1.8678890057626054 32 19 31 19 29 20 25 28 27 21 22 35 21 29 20 30 15 21 18 23 17 23 13 19 19 28 16 25 14 25
3479 0.041048029899933822 1.1398840768184246 3.8475855945644986 192 160 135 0.90062375375109416 82 71 88 107 89 108 85 112 90 99 91 93 94 99 95 85 96 77 93 66
4276 -0.78647641004291469 0.088086394029640247 3.3454648678399344 114 80 71 1.5507256081830629 106 263 108 291 109 283
1082 -3.6308670217394767 -1.8147482330413247 7.0930725515832647 180 159 131 2.5153218974921763 40 149 57 86 60 145
2682 -1.3029108417904578 0.5992460390206058 3.0490473197593295 92 60 53 1.9896130206103391 17 242 19 293 35 90 34 282 32 305 33 278 31 240 29 339 23 184 27 262 16 223 9 164 19 199 16 150
4279 -1.0681934867224243 0.18168795978906493 3.21176441188766 94 74 60 1.7502358972125311 104 283 108 307 110 266
1085 -0.54422479152524217 0.34159230809151758 3.3926810705440094 203 173 147 1.6394380164124598 51 9 53 8 52 8 55 6 58 7 56 6 60 12 59 10 61 6
3082 -1.0798921551445029 0.91995080680586871 4.037537363650765 101 21 17 1.8592140576636895 1 40 3 41 19 179 2 37
1485 -0.79206539663636299 0.37317990912763022 2.9501622307351498 120 103 83 0.67416741945365444 63 264 65 262
3471 -0.45219628102460013 1.0962327586367004 3.7247655374277926 125 88 71 0.38379897775867278 84 19 88 14 89 16
1874 -1.2688119786094156 0.50975085954860111 2.9470998985367611 69 13 11 1.9049975395422087 36 384 30 228 29 351 32 320 25 298 32 231 26 311 44 310
2674 -0.83112366866321752 0.58984849199502865 2.8262973968973322 0 0 0 1.4400049737221627 17 173 19 325 20 184
4271 -0.77069822964012169 0.52677397283906302 3.7992762845298356 97 27 25 0.10826741080890065 102 250 109 120
1077 -0.83159952653379499 0.94125909746698599 3.1096331252351792 89 23 19 1.3819049100724643 43 323 50 298 37 296 41 230 42 225 38 215 38 300 53 244 53 356 54 402 51 156 59 348
4280 -0.54761002896989242 0.47393486698761145 3.2813070891423015 130 76 64 0.219730544811225 103 280 108 331 111 250 110 256
3074 -1.0534455601501502 0.24076421619237406 3.4363099834021287 122 66 56 0.60790791644072506 1 70 4 84 5 93 2 119
3456 -0.90686617608242659 0.30618269344523624 3.5023301927371353 99 31 28 1.3099229739937783 82 219 84 271 85 245 86 202 94 232 93 152 98 136
4253 -1.278043178502912 0.9478753865777666 2.3890281087975036 0 0 0 0.03554839617403896 105 183 106 71
3449 -0.90510606947367711 0.22992927882903563 3.0233336240932691 117 103 90 0.43513036998762061 82 127 88 98 85 164 87 93
3448 -1.1321391792825004 0.083130203893092669 3.1224958255772743 56 42 29 1.1612936606150503 89 99 88 78 97 94 100 82
2651 -1.1007811053328069 0.074127737245072101 3.2407804688435244 210 179 149 2.1062391917805718 10 55 9 33 9 96 11 28 12 28 12 65 8 37 7 93 16 60
4248 -3.7465981639459538 6.102893972203189 0.68196774811958571 160 138 114 0.83318570031580386 105 81 108 109 111 90
1045 -0.52747493306917548 0.64953932488884469 3.4608332136712248 123 80 64 0.67820874294482891 40 436 51 255 53 174 52 114 60 96
3437 -0.54405575147028351 1.2371622203973738 3.6500528784821187 86 69 58 2.4103002859304379 40 237 53 214 58 308 60 296 68 178 73 216 74 222 77 208 75 185 79 199 72 79 74 79 80 90 81 103 84 136 47 278 51 328 53 215 48 300 44 117 45 109 43 113 37 144 41 152 46 117 39 151 42 130 45 287 54 158 51 330 52 221 52 307 55 266 56 276 60 221 60 303 59 300 62 221 57 190 61 208 61 234 63 202 63 285 69 195 69 281 66 246 68 261 68 343 67 272 70 258 71 234 74 202 77 205 76 167 76 182 89 161 87 179 90 218 92 181
3435 -0.69838580720190491 0.65968175424822229 3.9155440927673211 112 74 58 1.3884225946003304 76 196 79 172 85 89 81 145 84 111 89 49
2638 -1.0493850249480827 0.54144472585666981 2.889069907457356 156 131 109 1.2546125623931883 13 235 14 258 9 202 11 248 12 252 8 209 7 211
3433 -0.51355236294997952 0.68123289795819275 3.3972789208231338 144 82 72 1.218583675634594 67 357 68 292 69 377 72 258 73 264 77 235 75 214 81 226 84 228 85 214 82 196 75 213 80 185 79 213 73 185 88 235 89 257 87 214 92 242 96 249 98 267 103 271 102 264 107 294 100 241 99 243 106 250 104 257
3432 -0.57051165731700493 0.74398348502145506 3.9329987803379653 131 87 76 0.91524312899011817 81 140 79 109 82 184 84 207 85 182 88 151 80 173 79 182 89 162 87 203 90 159 92 138 94 145 91 136 95 170 96 160 93 136 97 160 101 141 105 225
3431 -1.5607930607195666 0.45530957978248804 3.5175590969217656 96 84 70 0.67367071059417449 79 160 85 257 82 241
2634 -0.97717503345178458 0.11068909869474194 3.1972221541737134 97 81 66 1.4534771652651424 13 273 14 239 16 263 10 157 11 260 12 269 8 222 7 230
1037 -4.7002127666333111 -3.6529709975903777 10.015963012059469 178 156 132 2.1807500891406861 47 195 58 141 56 82
3429 -0.84119543154980259 0.38187296084251748 2.9670617742690184 214 199 178 1.2087037081089271 81 286 82 228 89 298
2632 -0.74547515034747025 0.55449671339026285 2.7346215685965891 0 0 0 1.4647045618322363 22 304 24 230
1035 -1.0099726095219108 0.30195198089975495 2.8846329600974259 107 92 74 1.6245105864072154 51 71 53 92 52 88 58 389 59 437 63 431
3420 -1.0327367454404088 0.89436065223591921 2.9402243474702625 179 152 125 0.48609059214121952 79 11 82 16
2623 -1.1537898627367644 0.87384627875094834 3.0483319485673386 90 15 12 0.45285620603347948 15 164 14 156 18 183 20 178
1026 -1.1512191987546694 0.83993078970159596 3.1676373817565384 99 34 25 1.7198012234935456 51 20 54 14 53 19 52 13 58 31 60 31 69 26 68 23 67 21 64 28 70 23 57 27 56 26 61 29 55 16 71 34
4229 -0.62919023710516331 0.41770093562543492 3.4979213616454246 68 46 38 0.81351421466414364 88 230 93 199 97 176 105 210 108 273
3403 -0.66563135231285364 0.39841967451978028 3.5231506889045225 120 90 76 1.5102016220272214 79 117 85 82 84 121 82 81 88 49 89 52 87 66 90 39 92 36 94 31 91 34 95 42 96 32 93 34 97 28 98 30 103 27 102 37 107 21 99 26 101 27 105 20 106 25 104 22 108 18
1806 -0.96524952598891167 -2.3127530672568906 6.6588359389496654 148 126 102 0.46707561534843622 36 214 32 185
2606 -0.88444107593464338 0.71881598314918771 3.4413245090235982 92 4 5 0.83343032805062789 13 0 14 0 12 0 6 0
4203 -2.8470508907060124 3.904667130250937 2.0935827407957519 146 122 98 1.5910249938182157 107 98 104 106 108 216 109 92
3401 -7.8213260662595978 2.2343175571485552 5.4346976788428094 182 158 132 0.87511998910225053 83 74 85 58 82 66 76 64 88 53 79 71 89 56 90 53
1804 -0.83779423919010598 0.16358402621272361 3.1334560430073939 141 108 90 0.32229431204845915 35 331 32 129 28 193 30 135
2604 -1.2967988961667565 -0.88445235061704619 3.6578222189290499 177 149 124 2.52016502395138 20 158 13 64
3396 -0.97121017679676225 0.90236492991178752 2.930116953088532 180 153 126 0.19559260337287457 81 7 85 11 82 12
2599 -0.97737454046700256 0.42403139869896805 2.941325973661765 250 228 203 0.203481513919816 17 257 13 241 14 226 10 268 9 212 11 253 12 260 8 214
4196 -0.88593528436767377 0.43586671553421985 2.8597739243924223 5 1 1 0.50203623446352863 100 30 101 43 104 52
3394 -0.64073547136099784 0.80198138407531594 4.0804512499344572 114 78 59 0.85903467208922346 79 185 84 147 85 117 82 183 88 186 89 219 86 146 90 221 92 179 94 144 91 182 95 169 96 240 93 134 97 156 98 166 103 106 102 114 107 109 100 97 99 131 101 98 105 133 106 108 104 113 108 242 109 215 111 92
1797 -0.61121854295501976 0.46799181198118839 2.8334745639697592 207 177 153 2.0987463595598816 34 24 33 78 32 70 29 30 28 47 30 31 27 47 31 22
3390 -0.98869506114647243 0.27140186417076967 2.9500414174805725 77 62 42 1.3376330334608872 72 157 73 129 71 221 75 210 73 279 77 288 76 253 78 253 79 164 84 177 72 224 80 159 85 169 82 164 88 183 89 303 86 167 81 175 76 161 87 174
3389 -0.49906494873484059 0.80787176538801608 3.7733797030279401 87 66 57 2.5920908352570264 76 191 77 191 79 142 81 141 84 149 69 202 71 246 73 246 74 165 77 152 75 138 80 128 81 72 79 108 80 172 85 181 89 113 88 58 84 206 86 147 90 108 92 139 94 103 91 137 91 88 96 110 96 162 93 139 97 104 98 118 103 164 107 115 99 92 99 138 107 184 105 139 104 175 108 82 108 189 109 177 111 99 111 155 109 178 110 237 103 234
4186 -0.32499536076105817 0.96809469567556183 3.9759385226330881 94 75 57 1.540674122136817 106 207 102 223 107 229 99 198 101 187 106 206
3383 -0.90619992501238489 0.55972945715074862 2.8979545602751142 196 180 155 0.75525639899041508 78 245 84 277 83 253 85 255 87 168 86 253
1786 -1.0056856305371646 0.39932256428710133 2.9250752486017979 252 223 201 1.5097155674304912 34 18 35 22 32 22 33 19 31 30 29 29 28 30 30 25 27 28 25 25 26 29 24 24 22 32 23 26 19 34 21 27 20 27 15 26 13 28 14 30 10 19 9 18 11 16 12 17 6 20 8 19 7 20
2586 -1.0354772894662014 0.7921764865523272 2.9023201771355307 107 79 63 1.30314025707986 19 113 14 100 16 126 10 153 11 233 12 233 8 201
3380 -1.1633257666181105 0.31239817627558997 3.0281369643572944 153 135 123 1.8236395656434035 79 243 80 223 84 243 82 236 88 213 86 195 87 196 94 177 91 62 92 52 95 280 96 96 96 236 93 226 100 122 99 76
1783 -1.1716855812261149 0.34208681725047407 3.4277681317379587 60 0 0 1.4675513436803402 32 11 33 7 31 9 29 9 28 9 30 12 20 61 23 61 18 67 27 13
3377 -0.46189020874480319 0.99420192753274284 3.8683777036642404 108 89 75 1.3763361931480265 80 190 84 194 88 193 86 175 91 172 109 231
3361 -0.16840008128098621 1.4927547736212454 3.735646782090817 140 117 99 0.80910602799266595 77 6 83 8 76 4 81 4 79 6 78 4 80 4 84 6 85 6 82 5 88 5 86 6 87 6
2564 -1.0378290088121203 0.38776258193398339 2.9432334963361568 254 237 216 0.19248755845267432 19 328 17 261 13 193 14 227 10 267 9 213
4161 -0.82478927851468431 0.33570442888953228 3.3634853488923842 103 17 18 2.1246356107891593 105 94 106 86 108 230 111 262
3356 -0.84437880884261762 0.0959705753803064 2.9016195336769934 54 45 36 1.2809455721369636 78 209 80 207 79 200 77 255 78 174 74 305 90 139 89 201
4153 -0.49156182244604979 0.878856348878294 3.9937916311904087 99 2 13 0.63634604209774293 102 12 103 6 105 9 107 12 106 7 108 6 104 8 109 4 111 6 110 5
2559 -0.6626954050656525 0.85538147957174582 3.1118056150394771 122 80 61 2.3632286099624733 32 221 17 244
4156 -1.0166440122873521 1.0699277175185313 2.9212858551331009 202 174 147 1.3934519912136338 105 31 106 17
3354 -1.0537373990366661 0.1402311321364309 3.1534828849532537 97 84 72 1.8333988818428355 81 173 79 272 88 96 88 292 89 70 87 173 90 68 91 238 92 162
2557 -1.2566172711363606 0.92708209882018333 3.4239659485352099 141 90 77 0.2583011050072746 26 264 17 219 13 183 8 162 1 184
4154 -0.42963907062076584 0.63199437799119107 3.2697516348105218 117 68 54 2.0367596474527319 107 297 104 47 98 132 108 57
3338 -1.1784376052614001 0.088830837735809867 3.0962268269803799 189 162 139 1.2072274661130622 79 131 82 167 91 162 95 154 96 145 93 158
2541 0.2712758677200483 0.29097992620744223 4.4625700663606969 0 0 0 0.56206985744105675 22 288 26 325
3324 -0.88299376459883483 0.23599736922355818 3.5888381447464597 207 175 152 1.0456086082806331 81 8 79 10 84 8 85 10
3322 -0.61108443405063029 1.3174725861085728 3.690939957368323 116 94 77 0.95963280683825403 63 42 65 197 69 36 67 30 64 40 71 47 72 32 73 27 74 37 77 36 75 31 83 36 76 31 78 35 81 209 74 221 77 209 75 179 84 38 87 38
3298 -0.85515797764875701 1.2704450390192457 3.1830407428743626 210 179 151 1.5429184276285473 81 3 84 5 79 5 82 4 85 5 86 5 87 5
2501 -0.88640374767686891 -0.23932538386363703 2.4301761620367177 164 138 115 2.0766631059853715 24 378 15 71
3293 -0.77505892791987419 0.66430086207196903 2.8074652799642781 111 73 65 0.57842018366965631 76 41 78 42 44 226 50 248 45 240 43 351 37 249 41 276 46 229 39 240 42 273 38 327 36 304 47 242 48 249 40 288 54 275 51 184 49 230 53 295 52 186 55 248 58 139 56 263 60 273 59 265 62 277 57 240 61 162 63 257 65 266 69 263 66 223 68 240 67 252 64 238 35 290 34 289 32 365 33 286 31 248 29 353 30 262 70 219 71 163 72 214 74 301 77 280
2496 -0.3288043200493912 -0.43917450381575635 2.3792957956736265 0 0 0 1.2463181685599878 66 341 68 63
3288 -0.88701260126183656 0.14259109044956 3.124963196670612 250 241 224 0.5554522053035742 78 258 80 257 87 169 72 204 88 281
2491 -0.61189278813389003 0.28918870465872143 2.946476940225756 116 84 71 1.1526089768429371 63 400 66 322 70 322
3281 -1.0781088301760469 0.55877999246914156 2.7703817329949811 177 159 146 1.8023669370490447 75 176 80 227 79 165 85 141 84 178 82 165 88 141 89 147 86 132 87 123 90 138 92 128 94 127 95 152 96 143 93 123 97 140
1684 -0.90409295787351562 1.4276482940944042 3.6145411672229333 111 94 76 1.0213330443880893 63 277 68 341 64 287
4078 0.42356325484215573 1.1984080073725265 3.6854316687859683 201 169 144 0.81171074985293767 99 88 103 71 107 78 101 73 111 50 110 60
884 -1.8944119896551916 -0.28629835056222913 2.5960552562652364 149 125 101 0.96275063883935652 40 184 54 283
2484 -0.76921728129715627 0.21722011954909007 3.2753184471473982 81 1 4 1.5440894998504386 67 23 68 25 69 21 70 24 71 26 72 19
4081 -0.031275077562866509 1.6158068671379424 3.9989153725035678 200 168 145 2.3266320573929784 98 159 101 131
3280 -0.61564957431286693 0.75298315687097195 3.1107645740846634 116 58 47 1.9151272525864889 74 213 78 215 80 215 79 237 84 242 88 244
2483 -0.85600053778546914 0.20379421508844814 2.9288038484056851 87 68 55 1.9282208895645541 50 114 45 133 43 132 46 170 39 116 38 184 36 140 47 247 48 265 54 200 49 158 35 178 32 180 33 186 31 148 29 195 28 195 30 172 27 96 26 176 24 236 22 218 23 197 19 259 21 291 20 282 54 197 53 198 52 375 58 274 55 246 60 453 61 259 55 245 58 273 59 431 60 291 62 334 57 248 63 273 39 272 43 206 38 371 36 314 33 184 34 179 22 96 24 79 23 84 18 195 17 273 13 252 14 251 16 167 10 264
3273 -0.95803742585875851 1.277960986551425 3.5261106191695077 119 72 59 1.026197275710889 74 242 80 93 81 109
3268 1.1204957714516655 0.64928030069845466 4.0896787358671354 157 132 112 2.4533919794353181 74 1 81 1 85 3
2471 -1.0890874284234342 0.74233989926488619 2.8461371025505993 87 27 22 2.3068968803343171 26 158 24 167 20 145 42 349 36 184 31 188 29 174 27 182 26 219 19 298 17 170 14 161 16 227 9 184 11 237 12 234 2 198
3265 -0.80502659342190375 0.46962934501931752 3.7023472163750788 117 74 61 1.159978861924877 76 107 78 152 80 216 81 85 79 115 84 119 85 128 82 80 88 66 89 51 86 68 90 44
1668 -0.99517371237482133 0.76402144351749357 2.8566053055636527 83 11 12 1.5038857460970898 44 294 50 319 45 233 43 248 37 158 50 103 46 293 39 229 42 149 42 190 38 157 36 122 36 181 47 318 48 344 40 187 54 107 51 269 49 171 53 125 58 118 58 182 60 187 62 188 57 235 61 177 65 265 63 180 69 341 68 108 68 318 67 118 69 89 66 108 35 155 64 116 34 279 32 300 29 235 28 177 31 133 30 298 27 261 26 220 24 311 22 197 23 265 21 254 15 226 23 185 71 83 72 69 75 117
2468 -1.0500615546663075 0.3521580211255585 3.0041213039086232 159 136 125 0.23467791039628738 23 293 20 262 15 241 17 260
3261 -0.63689173132280752 0.30136030365897409 2.8573365215539592 111 96 81 2.5145708325057616 73 150 74 201 75 122 83 144 78 162 71 154 73 210 83 254 76 248 78 248 80 267 63 409 65 378 91 233 95 270 94 242
4058 -0.74772504252993088 0.34962737761898582 2.6907556924485516 162 142 119 0.76851189020253452 107 95 99 289 101 124 104 150
3246 -0.58639645034255439 0.84192093814810687 3.2520746971816545 136 75 67 0.17806097326093909 75 65 76 54 83 69 78 60
2449 -0.48063825927661624 0.80246923852115037 3.0984745140448906 0 0 0 1.8045108238741621 26 8 36 2 25 3
4046 -4.6360123763323751 3.6242678646095179 2.7539257999691085 0 0 0 1.0332862744997608 95 115 102 154 96 147
3245 -0.11558370456491833 1.1277204668339906 3.9255102181031414 193 161 136 1.0768856455130382 77 70 78 52 80 49 81 70 79 45 84 71 85 59 82 55 86 190
2448 -0.9415595009598956 -1.6726269856191378 5.3708711778400726 0 0 0 0.92338972596680835 22 94 29 70
3243 -0.50386754743664508 0.83108545032528236 3.5064366612571503 105 84 69 0.87687303911642434 77 33 83 47 78 31 81 31 79 40 82 34 88 37 86 37 94 20 95 33 96 33 93 42 97 29 98 37 103 28 102 45 107 42 100 35 99 30 101 39 105 44 106 41 104 46 108 38 111 39
1646 -3.4443456299720672 -2.0269660183396603 7.3067963575921588 144 128 105 1.2563891562469425 62 134 68 225 67 232 64 367 70 225
2446 -1.2834756621803887 0.641194839787952 3.3163044651052958 51 6 5 1.242726291161325 19 109 22 150 27 296 21 143 20 140 18 108 17 95 14 97
3241 -0.82816869403107829 0.30107164489870691 3.2775307056079579 77 0 2 0.8980353554448206 78 5 80 6 81 6 79 9 85 9 82 8 88 6 89 6 86 9 87 7
3239 -0.66317750644434781 1.4908417194072512 3.7764181528247427 140 124 101 1.9979051198227977 73 224 75 190 61 239 62 210 65 193 68 124 67 130 64 212 70 243 71 229 69 271 73 113 74 106 77 102 83 97 76 175 78 176 80 119 80 197 79 201 82 153 84 201
2442 -1.3195248591006437 0.75498284704288476 3.438574262857057 66 18 14 0.71368233157564509 21 43 23 51 24 44 15 48 18 59 17 36 13 40 14 41 16 45 10 35 9 38 11 34 12 34 6 39 8 32 7 31 5 38 3 36 4 33 1 34 2 31
4039 -4.3165633973374433 3.7821295538352202 2.4454695016136601 148 126 103 1.3744733390384809 94 90 100 89 95 178 96 99 91 123 105 181
836 -0.54822875840431684 0.91024927471018202 3.3610457266626206 139 79 71 2.1307578439679213 40 351 54 169 53 236 55 283 53 345 58 325 56 299 60 350 59 329 59 330 62 239 57 279 57 280 61 320 63 324 48 321 65 317 69 293 66 263 66 356 67 286 64 301 70 273 70 274 71 253 71 254 72 247 74 244 77 228 77 229 75 206 75 208 83 213 81 220 89 255
3202 -0.63468282549081845 1.2603428817744757 3.4051931699040194 99 76 62 0.91348332984279335 64 286 75 136 74 163 77 150
3179 0.29296061171183968 0.80028412681903127 4.1648342277370016 180 149 128 0.49678703775282851 74 6 75 8 83 9 76 6
3178 -2.1266392140586179 0.215862049451685 3.5565287837365562 190 164 137 1.8568176593185992 71 4 75 6 77 5 83 7
1581 -0.67689696796228693 0.24724207701123263 2.5198269612016819 82 68 57 0.59220947657071443 63 74 70 155
3177 -0.45669727326971987 1.7168067504782687 4.1926753521172104 0 0 0 1.6182723513916268 71 3 73 2 75 2
1580 -0.95628825358861169 0.52612133506170722 2.5424967327690315 73 56 44 1.5447657948241531 60 42 66 232 55 29 67 177 64 256
3974 1.0406750515261693 1.5103775640647579 3.5051062095242762 167 140 113 0.10140884217396029 102 157 107 232
780 -0.52558091481065694 1.0931375353127786 3.5599034821849656 121 85 71 0.38897440143530565 46 277 48 309 54 353 53 331
3173 -0.6779890323887543 1.3600387391896784 3.6349858331480842 96 81 67 1.1395900225805147 73 229 74 44 58 52 60 47 62 37 55 132 61 53 69 49 65 44 68 58 67 51 70 45 71 49 77 54 75 59 83 57 78 54 76 46 80 50 81 64 79 279 84 188 84 107 82 133 85 124
1576 -0.71704433936625445 0.32195018046095941 2.6135355760611669 55 45 33 1.6661525835153834 65 181 68 42 66 154 67 44 70 330 74 58 63 187 62 202 79 130 84 134
3970 -3.392304498339179 3.851180397931115 2.3905979875346959 185 160 130 0.93275543773570646 93 23 107 30 105 30 100 22 101 33 106 18 108 23
2373 -0.81133212366551266 0.22782400444162496 3.1333635932169814 68 51 38 1.7088945434138541 23 87 19 81 20 85 17 72 14 49
3172 -0.67889193945379256 0.46817254951086318 2.9805936972571687 79 15 18 0.75687535818737806 73 147 74 140 64 354 67 249 68 320 69 260 71 152 72 146 77 174 75 116 83 181 76 162
3969 -0.49039568456382293 0.87775295226486982 3.498523116278665 114 92 74 1.8973353303979281 97 168 107 280 59 250 62 158 63 321 65 150 66 261 65 314 64 299 70 271 73 125 73 251 74 238 74 239 75 202 77 106 78 197 81 107 81 188 79 177 84 110 84 218 82 186 61 224 88 157 89 243 86 205 90 98 90 114 96 232 97 117 99 226
3171 -0.92310524362875035 0.58243591159269126 2.9284591072980897 97 69 56 0.33061766149079136 73 314 77 304
3968 -0.5249392943673622 0.38506044066567408 3.2564878526470182 101 11 9 1.6948149286217613 93 208 97 295 107 345 106 253
3160 -0.50287083556041523 0.91028633866474995 3.4134736677627577 94 16 17 0.69944000446597754 68 277 77 187 80 168
1563 -2.7876583710573435 -1.5875754677799507 6.5867368551312655 192 165 139 1.137308762041461 61 4 63 3 65 3 45 7 46 7 43 6 47 8 48 10 40 10 54 5 49 7 55 4 56 4 59 3 62 5
3159 -5.8406129083044291 2.2928027522450898 9.8715884663159823 105 38 38 1.2591751384907974 70 284 77 185
3155 -0.53238950145614627 0.55950921588601432 3.4490056889676297 108 33 30 1.2043343237868878 74 91 77 82 83 262 80 95 81 113 84 80 86 223 90 118 92 208 96 120 93 240 102 262 108 268
1558 -0.75126640228345931 1.2809873877762008 3.4689640245209916 110 88 73 2.092920435086179 45 285 46 271 52 405 60 464 69 145 55 96 56 100 57 102 63 109 66 252 68 97 64 129 70 180 64 191 68 271 71 244 72 122 73 175 74 59 74 164 83 208
3154 -0.92031566999308467 1.3267247954985086 3.5298409523564032 146 119 98 0.64318671028003105 74 86 77 78 75 81 83 102 76 69 78 97 79 83
3149 -1.1124726937156948 0.65031564609813219 2.7642943580944164 189 162 133 1.5080472618591154 73 59 74 55 75 50 77 48 78 43 83 40 80 45
3946 -0.53025706366071168 0.879242359648712 3.659273741341539 88 69 55 1.3503428658691716 97 36 107 41 100 32 105 43 106 233 104 45
2349 -1.2543410298651521 0.39837515341756125 2.9424893656264448 199 170 147 1.0596562452284788 24 328 23 288 19 340 15 236 18 264
752 -1.2817982192189863 0.38771567464214246 2.8267186729211593 89 75 62 1.3012482150239657 46 17 47 13
3147 -0.83767898942557761 0.92006509502927181 3.2109949311661961 99 23 21 1.8124656218324056 73 5 74 5 77 7 75 7 83 10 76 5 81 9 68 4 70 6 79 12 85 13 82 9 87 14 78 6 103 7 99 6 101 6
3133 -0.53747826174732649 0.72488889920904653 3.2642632235767937 98 20 18 0.13664268536985502 66 279 74 259 75 219
1536 -0.70047310567948118 0.63183778359279175 2.8673982652573153 89 12 10 0.77782588139409781 59 165 69 254 72 217 76 94 77 92
3930 -3.9492691083022367 3.469285186031573 2.5781256030466007 138 121 95 1.5753357987616814 93 128 102 265 107 160 100 191 105 196 111 288 110 195
2333 -0.47915586096174145 0.65377372635756315 4.2636101584578521 0 0 0 2.7900423653639965 27 152 30 217
3132 -0.87298832948310434 0.14723263325293737 3.0462968669676438 76 64 50 1.9295030712082741 74 258 75 272 80 241 84 175 77 299 87 131
3127 -0.68529890720470588 0.353723350844665 2.6885747615436584 0 0 0 1.1673419589908811 66 334 68 308 73 321
1530 -1.1301276049841436 1.3198487814273485 3.7827973757093392 114 49 41 1.963380308044449 58 154 69 172 61 149 68 138 71 250
3123 -0.51156066022074753 0.73051722504456906 3.6788896621384484 131 95 79 0.074153415138069279 73 257 74 171
1526 -0.49801337677426183 0.87609333430163461 3.7113964885801112 117 95 81 1.4895747913923869 65 149 69 149 70 128 71 129 78 94 81 73 82 74 92 75 96 112 97 73
3920 -0.95011763342915212 0.14121756792896767 3.3356185813785508 116 80 67 1.844086138545785 98 294 102 191 100 261 102 295 107 315 101 252 106 267 104 194 108 225 105 92
3119 -0.95424816788626265 0.27353456168178331 3.0433194119120057 66 54 42 0.25327022479926742 73 108 74 60 77 67 75 69 83 65 76 58 78 49
3110 -0.76544150766249386 0.72482750498801662 2.880681750137752 90 38 30 1.7661944241140268 71 210 72 286 50 323 43 301 47 319 46 295 48 342 40 380 51 386 44 194 50 325 45 312 43 205 37 308 37 309 41 251 41 279 46 225 39 326 42 281 38 273 36 376 47 239 40 382 54 266 49 223 49 225 53 269 53 375 52 253 52 256 55 229 58 176 58 351 56 228 56 230 60 210 62 285 57 226 61 184 63 373 65 347 66 299 67 228 67 324 64 12 34 354 35 287 32 309 31 336 28 149 70 254 70 15 71 294 71 16 72 282 72 11 73 205 74 292 77 274 75 253 75 250 83 247 76 117 76 235 78 122 78 240 80 109
1513 -0.70607161654739581 1.4339711505577459 3.7306237496435029 93 21 25 0.5996157928185688 63 29 69 37 68 34 67 31 71 39 72 29 74 38 77 37 75 41 83 45 80 89 81 104 82 138
3108 -0.49716153456714968 1.0560719696943495 3.6311986410893087 92 18 16 0.71059059849380135 65 304 73 329 62 306 76 187 82 182 86 201
1511 0.47831641315028711 0.99099017660616928 -0.25172201906736641 0 0 0 0.62663019038107381 58 16 59 32
3107 -0.97938163094262376 0.37102844843717026 2.9231459620175997 254 248 231 0.4972864364603502 72 205 73 319
1510 -0.65855579319370516 0.12072652221626555 2.7324217050270425 122 110 95 2.0349261823424381 69 16 68 14 64 17 70 17 71 61 72 53 74 73 76 59 87 256 79 32
3100 -1.0496182304004926 0.26919987460246309 3.291663646055131 0 0 0 1.5244463028102258 65 258 66 110
1503 -1.0877574027454668 0.59451569047694819 2.7849822252560763 90 80 68 1.4592335661775409 63 408 51 414 58 388 56 261 57 344 65 261 66 229 69 118 68 111 67 120 64 118 70 111 71 111 72 75 73 37 74 42 83 41 75 38 76 33 80 26 78 44 81 35 68 333
3897 -0.61322483784504778 0.86092150524147515 4.1058556874166481 141 88 77 0.90207967306967141 98 220 103 328 102 163 107 224 100 120 99 190 105 231 90 215 106 105 104 217 108 235 109 222 111 195 110 215
3092 -0.66026934728012687 0.12621611197785065 3.0296001681710685 93 73 61 1.3604235991579263 72 151 73 107 75 92 77 94 80 43 81 45 79 53
1495 -0.90445533300110204 0.60773350872754572 2.7768958317200694 103 75 61 1.2412616484648662 60 346 65 365 62 396 68 327 67 338 64 360 73 315
3889 -0.64570955574239064 0.70659246676825305 3.9600192137943031 93 23 16 1.089820418304335 98 235 103 228 102 229 107 253 99 208 101 213 106 223 103 230 107 254 104 171 108 170 108 182 109 168 111 151 110 165
3084 -0.69742128637501333 0.23890105741452491 3.0039591430526587 113 95 83 1.3298772284988394 71 24 72 20 73 21 74 18 77 16 75 20 83 23 76 19 78 19 80 21 81 24 79 44 84 29 85 40 82 37 88 39 86 51 87 42
3078 -1.2960985610921572 0.79060689313626709 3.0891676929303107 92 12 10 0.59644035778637916 6 173 2 187
1481 -2.2683983858199714 -2.5852502030808169 7.500057220446867 133 114 96 0.1519221821456764 61 284 65 250
3075 5.3915884135080674 -1.9873403079604346 6.7667358387709857 170 143 116 1.0278396222038899 10 106 2 121
3068 -1.0810112079136998 1.1043317896179166 4.2615680939541196 119 98 77 2.0300565045518817 19 258 23 344 20 211 15 193 18 209 17 204 16 218 9 192 12 103 12 162 14 187 4 176 6 109 5 137 4 99 1 107 2 180 3 174
3066 -1.2642228335190295 0.82349235625320349 3.2296961942343549 119 84 70 1.4091121773861677 9 113 12 111 20 137 6 118 8 109 7 120 3 119 4 113 1 123 37 154 43 243 41 161 39 150 42 144 43 242 38 128 36 115 35 117 34 113 32 120 33 262 31 126 31 227 29 123 28 124 30 120 27 122 25 107 26 106 24 107 22 109 23 109 19 106 21 105 20 101 15 96 18 106 17 92 13 93 14 94 16 94 10 120 9 101 12 77 6 116 8 108 7 83 5 125 3 118 1 122 2 108 2 110
1469 -0.80089021451928843 0.068903080585134918 3.1112045448443584 65 51 42 0.74038657528454555 57 122 62 132 65 123 66 112 70 113
3863 -0.90700432453880908 0.26968950032275074 3.4710822592506969 116 88 72 0.93348290469349449 97 26 98 27 103 15 102 23 107 22 100 18 99 16 101 16 105 16
3064 -1.0270364197192432 0.048706598497660222 3.0552028022192972 97 81 65 2.0220361186024545 3 187 4 222 5 159 4 195 7 206 1 175 2 163
1467 -0.65006277268471468 0.37722458664584135 2.8115461330776483 124 107 86 1.6352439587967398 63 92 65 118 68 336 70 323 73 209 77 134 75 262 83 129 78 246 86 22 82 18
3861 0.69662684532810781 0.93013609522567509 3.9407485372157716 202 171 143 2.1997547755097191 95 6 96 6 103 4 102 6
3063 -0.85858366928290442 1.1548123634399707 4.4361431979575769 0 0 0 1.5623517734879013 4 175 7 191
1466 -0.49757320936953864 0.54663061392565271 3.2234621371308405 132 81 70 1.7048097547803651 63 259 65 108 71 138
3061 -3.1007196209957466 0.29750058837724991 1.8880582972663191 0 0 0 0.82043455376400554 7 199 12 219
1464 -4.6331581355871281 -3.4225652175217522 9.3956909599972178 183 160 135 1.3783348266187176 62 105 69 127 55 241 58 134 59 124 63 86 68 81
3060 -0.68765832465492549 0.53583953752808022 2.735869614455904 211 182 156 0.64906118755927722 3 99 7 97 1 103
3059 -1.0865097989402619 0.63235790772885847 3.1685255125361622 92 69 55 1.691870733856297 12 102 1 92
3058 -1.3166318676964008 0.60891875111359539 3.4968623233804479 101 79 65 0.84860349875656627 7 42 1 44
3056 -0.48454347713568025 1.3818160538834461 3.3297865167471272 195 165 139 1.6450466565231561 3 1 5 2 1 2 2 1
1459 -0.49832119139558984 0.24912137554011496 2.3078941293610642 0 0 0 0.46029089507907678 55 114 62 26
3055 -0.95881637073358539 0.14963025348831088 2.9782339349378981 182 157 136 1.4516625599623754 34 181 32 181 31 150 29 139 27 97 26 88 24 95 19 91 21 85 20 114 15 73 18 86 17 77 13 66 14 80 16 84 10 105 9 100 11 96 12 128 11 123 8 120 7 98 7 131 50 78 45 69 43 64 37 69 41 74 39 62 42 175 44 253 45 264 46 337 37 346 42 310 38 68 38 280 36 65 51 439
1458 -0.60790710463732334 0.97657671111999256 3.3600154546146968 113 64 50 0.46683119652418398 63 16 65 14 69 14 66 14 68 12 67 10 64 14 70 13 71 13
3054 -1.21074876993151 1.175817166219401 3.8098844356136929 98 52 45 0.86728801630100638 16 213 36 330 35 197 32 148 31 170 29 148 30 146 27 163 25 137 26 138 24 101 22 99 23 102 19 96 21 96 20 100 15 88 18 100 17 83 16 68 10 82 9 77 11 71 13 194 12 67 6 110 8 60 7 68 7 109 5 71 5 111 3 107 4 72 4 102 9 107 12 105 1 81 1 113 2 63
1457 -0.59794547099158368 0.33555644118624089 2.7573261760236529 160 146 119 1.4500839976344884 60 421 65 8 66 324 52 279 53 188
3053 -0.1697190688921684 -1.0627150900728701 3.6854267884050325 0 0 0 3.5042684144152236 6 255 11 196
1456 -0.521082246205536 0.63267812390424372 3.2686382754651699 137 88 76 1.245699560213879 59 239 65 160 56 151 72 130 75 103 80 99 81 114 82 113 94 94 91 107 97 84 102 126 105 160 106 84
3052 -1.2578055400569661 1.0725807324836247 3.848211665885152 64 10 9 2.0815080937801533 24 255 19 350 13 192 9 250 11 208 6 212 7 243 4 163 7 184 11 209 12 204 4 164 1 164 2 170
1455 -1.0536830514897351 0.54796777034222388 2.8441142236066881 124 111 97 1.8400854171246714 58 390 56 339 60 418 59 406 57 345 65 379 62 272 66 330 69 361 68 334 67 349 70 326 71 310 73 320 77 291 83 251 83 257 76 249 76 250 78 250 78 257 80 263 81 208 84 283 75 268 85 260
3051 -1.2662054032579984 0.36700360266089765 3.3412761992191937 105 59 47 1.6305056158413151 13 216 10 176 12 148 5 131 4 207 10 174 12 231 6 161
1454 -0.652007749864847 0.6750963048583416 2.9633424587255197 107 45 36 1.4520855118841329 48 345 51 389 53 377 58 300 56 155 60 389 59 366 57 311 63 365 58 349 62 399 61 342 65 345 64 329 71 277 72 143 73 289 75 229 78 224 81 255 79 246 84 252 83 229
3050 -1.2032589409639491 0.93555667798062336 3.2645352979630076 114 89 68 1.4859865075864434 7 103 3 115 4 109 44 164 50 97 45 161 43 165 37 99 46 212 39 99 38 109 36 78 47 227 48 325 47 301 35 142 34 205 32 152 33 201 28 163 30 208 25 195 26 200 24 148 22 192 21 177 20 97 2 106
1453 -0.64420591502373625 1.0162404820277959 3.3074785337826951 105 53 40 1.4755017417216414 54 362 60 458 59 326 63 322 60 349 62 320 68 278
3049 -1.2905509009131448 0.73645570257707815 3.3592922125056806 53 0 0 1.5699594802326109 12 180 5 188 4 193 6 150 21 244 2 154
1452 -0.53794610237789375 0.77532389462197593 3.3116004778899124 137 81 71 1.8404158217390429 59 346 63 428 69 309 66 271 69 304 68 286 67 358 67 294 64 312 70 279 70 280 71 262 73 263 74 248 75 211 75 274 76 200 80 182 80 208 81 227 81 230 79 277 84 231 85 215 82 197 82 199 87 215
3048 -1.1540581901800004 0.41758963751345807 3.5781446912051247 79 57 40 1.2610395432304273 3 77 5 81 16 222 11 197 8 144 4 64 1 74 2 60 20 237
3047 -1.2599308319410962 0.8761136320061419 3.841107185852533 78 36 31 2.3067206430329472 11 202 12 202 6 208 8 165 13 185 14 193 7 180 5 173 3 185 4 183 5 172 6 204 11 199 12 200 4 184 1 178 1 179 2 165
3045 -1.2035041935346351 0.2748632119247405 3.1701948016393886 99 72 55 1.64173837480818 3 211 10 270 3 210 4 221 1 212
3040 -1.109153713343225 0.53241746184649685 2.8105944996739618 149 138 106 0.23227913335275963 3 151 5 212 4 145
1443 -0.56533695381036964 0.88132808280555186 3.2701986843596025 141 84 73 0.37778854759126967 60 354 63 327 68 282 67 291
3038 4.7941794384210308 -1.6590339424923595 5.9069839513689377 161 135 108 0.50822420559499848 3 66 8 64 4 65 10 100 1 52 2 49
3034 -1.2188884579311507 0.23279774285723501 3.2400469197087785 0 0 0 1.7547437863774757 10 14 16 22 14 27 13 21 3 4 9 20
3033 -0.95991495547999728 0.10065250322394179 3.0589928656453331 64 48 32 0.42544233299116407 5 232 3 235 1 227
1436 -1.0029016131613262 0.81045056946903615 2.8830956681501081 100 39 33 1.2946054584849314 57 371 63 140 61 113 66 312
3032 -1.1283086743405237 0.57705993660775057 2.818307242694738 87 71 48 0.23065349404263974 5 209 3 212 4 223 1 215 2 210
3031 -1.1719811689514734 0.51615670120553081 3.6004809768620882 111 51 43 1.7978609077428971 13 44 16 31 9 28 10 28 11 21 12 20 6 14 8 21 7 16 5 16 3 14 10 188 6 206 4 10 1 7 2 8
3030 -1.2291163745821607 0.87432599738733174 3.8526074082039301 87 20 12 0.15880341636944326 5 171 3 186 4 185 1 180 2 164
3029 -1.0179015515430148 0.54787205577593945 2.8201574494237325 155 147 125 0.048871772535348704 5 155 3 182 4 151 1 156 2 217
1432 -0.68852031297202776 0.28408572917157754 2.4315829666563573 88 71 57 1.0020261271666473 55 65 63 75
3028 -1.2940669922430406 1.12414861994215 3.8078902157026207 78 15 8 0.78033286187651485 6 215 3 239 4 168 2 175
3025 -1.2513477995346907 0.36585377377805128 3.478402366545907 103 46 35 1.4621872371623783 5 195 3 196 4 202 1 205 2 137
1428 -0.46513375225552739 0.68145265457424054 3.3581349875654118 126 68 57 1.2479595993254782 52 111 57 367 63 37
3024 -0.92731109062079586 0.96437067908276475 3.1927694088017384 118 81 66 2.1156263365077832 6 157 8 193 12 145 2 189
3023 -1.2441378090330912 0.6443473470679647 3.6381146452487618 93 26 18 0.23328573554549747 6 190 3 193 1 188 2 155
3020 -0.8674516539809477 0.98465780065816133 3.1503508524951203 119 84 67 3.5543841239922287 7 126 3 155
3019 -1.186019781631219 1.1167416967576205 4.166843120089383 139 120 95 0.997774732191828 6 220 3 139 4 129 1 173 2 181
1422 -0.75089215783846774 0.98546062229822218 3.180520815135135 119 68 56 1.2994003406970722 45 296 49 284 55 287 58 422 56 301 50 196 45 216 43 229 37 295 41 225 46 205 42 322 38 296 36 239 47 217 54 241 40 170 49 199 58 238 52 232 56 210 60 239 59 228 62 240 57 208 63 224 69 212 66 192 35 204 29 314 70 194
3014 -0.81068537213321801 0.56162193354313195 2.6929029197515049 212 182 156 0.91374799567038834 8 94 3 98
1417 -0.48598423402377267 1.172944734422825 3.7104290716442287 126 108 96 1.751171678230939 58 314 60 300 61 301 63 282 65 289 69 278 68 258 70 256 72 229 77 211 84 66 86 74
3012 -0.75344409530208545 1.2908047330451946 4.507492182408277 0 0 0 1.0778570429675376 8 101 9 103
3010 -1.2325321648714931 0.66492670587239744 3.5190158304448369 101 5 9 0.30462326047272026 5 64 6 80 3 65 1 78
1413 -0.88046732003937966 0.74662059604358044 2.8569830925048585 124 70 62 1.1055580134748528 46 294 48 343 51 388 49 320 56 327 60 399 62 363 57 317 61 95 56 95 59 95 62 122 55 186 57 91 63 127 56 330 69 116 66 107 68 158 67 169 64 127 31 329 70 149 71 150 72 290 77 279 75 259 83 250 78 242 76 240
3007 -0.83060155402509206 0.74357408832147898 2.9360025360928841 58 0 0 1.1638147742059914 5 14 6 12 3 13 4 8 1 12 2 13
1410 -0.68811187389554984 0.48820845299254928 2.8085430225275614 105 77 62 1.7190392611752618 53 406 60 374 61 358 54 422 69 344 70 314 65 359 76 245 80 269 79 275
3004 -1.4778362080103311 1.2227272770369304 4.2560664652679483 199 165 140 0.43854975879551317 6 4 7 4 3 3 4 1 1 3 2 2
1407 -1.069262153862945 0.36050499409611847 2.9296917347468159 131 115 100 1.4891867561172769 60 444 61 384 56 358 55 353
3002 -1.5183224599419656 0.21108142903825119 3.0776111611094263 0 0 0 0.14677774158782064 9 199 10 218
1405 -1.1955131355285653 0.52795265337762509 2.7803503144863289 99 81 66 1.9717104731590938 57 352 58 396 59 274 61 373 60 283 63 420
3001 -0.84231815377911678 0.55246955408307374 2.8096743191639741 136 120 95 0.44880494557839018 6 271 5 203 3 164
3000 -1.0554354983738263 0.53329525286910151 3.7099656221995985 144 92 77 1.6079056660453976 6 292 5 191 4 143 2 131
1403 -0.60491777618978115 0.34603434529777172 3.2410859096395153 128 93 73 1.5283896173301328 56 333 59 390 61 356 57 337 57 339
2999 -1.2759733672303286 0.69126773250269735 3.5885370125073806 140 85 75 0.21919582127477868 6 192 5 187 1 186
2997 -0.92231117719411015 0.20733091056242697 3.5701051747686057 202 171 142 1.2198282156484512 6 7 5 9 3 8 1 6
2996 -0.92783134027435599 0.37249796736091084 2.9091992744495991 212 195 174 1.2959550723821174 10 240 6 276 5 157 13 139 14 170 10 238 9 224 11 263 12 268 6 274 4 157 1 162 2 146
2995 -1.279355962239447 0.50023506960813813 3.3108733488162727 102 36 30 1.5358130325977897 12 115 6 228 5 128 9 167 10 127 11 101 12 85 8 112 3 125 4 118 1 129
2994 -1.1114686131371052 1.2700639956247481 3.6340137610715604 127 77 65 0.34978474203198201 10 203 5 240
2991 -1.0871581730699975 0.16424349462905283 3.1794291531274719 103 82 63 1.5921984198903314 12 257 5 214 4 228
1394 -0.40863465229935519 -0.46952789977178266 2.5544632496349426 162 145 124 1.6503449542352819 62 350 61 251
2989 -1.0875533913919786 0.79155493720759573 2.9593146382461391 110 81 61 0.73897473291841909 8 149 5 200 2 194
2985 -0.97379361747449522 0.82082624354445677 4.1673399171468439 196 155 135 1.9227631965821952 9 183 5 170
1388 -0.54098449211868982 0.45010316160556041 3.1379002071795612 137 99 82 1.5593645838717538 56 312 57 242 59 384 60 405 62 279 61 134 63 252 69 170 66 117 68 154 67 165 70 146 71 143 77 128 83 119 76 115 84 101 86 121 92 118 95 140 96 126 102 132 99 108 104 109 108 114 110 135
